2261.62700450080	886.644829395070	955.406748453460
2260.91634345570	883.020462416160	935.791498107000
2262.24546206300	908.584092731860	632.705344759220
2261.75121595410	891.378516645210	984.809857607360
2260.52529743260	906.164943102450	609.579276887020
2262.16771456860	904.935818952650	657.526559423430
2266.28958493710	883.395362497330	1011.89314629450
2265.54765262560	874.428204324430	1034.16845496570
2265.01030062150	866.410191239000	1054.08599327200
2260.28139159370	902.853413844360	736.217770808710
2262.13443200600	901.886484741740	709.224207862420
2262.90425527380	902.141534735590	583.098816962740
2263.91043830280	900.656313852390	685.770534020540
2264.27428204680	863.561584071030	1061.16221549600
2265.51160289600	903.039466326830	758.741680562210
2265.62978834460	897.610244257710	785.226899568010
2261.75121595410	891.378516645210	984.809857607360
2261.76200866460	889.106230713890	962.488157042120
2265.26351071380	896.961379197890	558.586858845290
2267.50130473900	886.100267055930	911.536190649310
2267.96102461500	894.849410765040	804.135165841800
2268.78588523640	882.185953767310	534.312151697880
2281.09995296850	890.603876359540	983.072851600770
2282.71126886530	866.193865907310	1053.72409310490
2285.24350209100	873.013631194520	1032.32831222140
2285.76039743210	876.351360886490	1009.18830280890
2286.12255496350	877.454657954060	985.654752003550
2286.43832974240	879.114843875070	959.932123891830
2287.52478183180	877.254654374230	933.362261468230
2287.59531770970	898.009295115860	560.750212464400
2288.26934524770	902.365406252650	585.968932996660
2288.57522944740	902.583203395880	658.532684397620
2288.44135805270	854.219482122600	1060.77335781410
2288.69330896860	881.586029140040	532.641266632060
2288.92032186670	903.932580034940	760.489962622890
2289.65550756550	903.888322784090	735.302887578980
2290.01953491120	902.655226403160	709.440803549780
2289.50511157260	901.449934991660	683.503203707060
2289.27061746430	899.330487354080	783.268442668950
2289.34752043140	852.244133118030	1037.18289031000
2289.45026954290	895.772842525510	805.948927256810
2288.88218136690	904.579767218240	610.259509410660
2289.94462209070	902.846260584620	634.838636229470
2289.67388950970	854.093215581570	1009.60464622420
2290.50950244580	852.556663010260	985.726888872580
2290.61570314210	855.651363510200	958.174396121360
2291.25629974220	855.090294576140	935.272106033030
2293.07165037090	828.225227760140	1058.72681818920
2293.32241121650	830.059112445780	1034.45844052880
2293.90921770980	880.037989516700	660.482222379650
2294.43002004110	877.136866689170	636.795172590710
2294.31964859250	828.782860398570	1010.10073890790
2294.83733838520	878.403279198770	610.136709708040
2295.12832251810	831.053263969260	983.934221490040
2294.91621658310	881.575178648400	583.164067597720
2295.67608506110	880.224413208700	561.104146312380
2296.43828065960	832.260491913990	960.651341788870
2296.67552354960	880.520907238070	912.308251844060
2297.16928816500	834.613787442890	935.863894835590
2298.05009018720	855.157916034670	657.909745108500
2298.39424315080	855.007091515430	634.110032695080
2299.14002818860	811.092443067350	1062.27717833090
2299.00705574850	854.386074496400	612.829158656390
2299.23514816280	850.158842634940	634.688118389970
2299.21578601000	855.420746002000	915.545053876880
2299.95135317260	852.824125959780	584.545632117900
2299.93414188920	849.686945975860	608.652346461640
2300.15021659310	897.348658885540	759.633947095480
2300.77103135020	851.517242435980	559.630022620160
2300.21488410230	880.051344805350	885.803784526770
2300.06132352800	899.392940157610	733.629255365060
2299.95135317260	852.824125959780	584.545632117900
2300.64956430540	855.319443936380	536.430525496110
2300.39984829860	882.521245831160	859.577443741330
2300.84341651480	898.210712267450	709.443390843570
2300.77103135020	851.517242435980	559.630022620160
2301.29674381460	874.012837918690	885.064746191290
2300.22370714340	851.580304359690	664.164509968980
2301.87692780510	877.876135824560	831.745132914880
2301.77116025570	849.495131192540	532.415267213060
2301.97350496680	873.519231002600	860.130726217870
2301.78741160860	881.118586963600	811.366198135140
2301.90913334280	876.911105072120	837.575177726020
2302.45672990710	881.046961845430	783.602138116160
2302.58039971170	877.043953749330	808.204966461250
2302.72465930700	882.445688427780	761.850804661920
2303.71009709700	874.003867185630	783.098444931530
2303.64022839760	851.973434915410	905.585506872420
2303.72780165430	876.649858976220	762.631332234980
2305.50698766550	850.228362224840	884.309438782590
2305.28112906040	878.138653705550	685.863984204300
2305.67262038680	852.644487118140	859.301158458370
2306.58525385960	850.694455602600	835.248429509630
2307.49032597930	850.398761047340	809.130394680370
2307.97510506190	851.201969278850	783.390068562290
2308.90586459560	851.033097925190	734.612652276910
2308.42202454980	851.726200853970	760.413984038930
2309.07162330500	853.176923307200	711.628289679410
2309.80015354250	852.610158207520	685.050739201870
2310.55483188420	817.256763454970	1008.03778133960
2313.86187795640	821.149265532900	982.793150473250
2311.09638618600	824.954803449570	960.235031095480
2314.30095723850	826.815094400920	934.376711591120
2313.83768983900	828.044926616260	908.804828785860
2313.19932322890	828.486242880880	659.360822143960
2314.30311191290	828.266758935040	635.464654433090
2314.92012437090	828.266758935180	609.378242965960
2312.94595076020	828.917186411870	586.130308624440
2313.25787846870	829.024975978000	560.036860348230
2313.87482630010	829.024998337060	533.950583990570
2315.22759836780	805.840565563690	1058.90424224390
2313.24419803210	829.664051429440	884.287292505840
2315.03102614700	810.945961504420	1035.54311063530
2317.21258046660	815.574789251650	1010.63215348650
2316.05055072100	832.969351337980	860.120915015820
2316.83439406620	830.633062096230	684.750957853940
2317.68129621710	831.115744855820	709.178417164740
2316.44581569750	837.784776760280	837.054881294200
2316.74506729810	840.458914347040	811.160542516130
2317.27738130070	841.346564181500	785.139701315930
2318.34414186510	837.762966467170	732.535364609470
2317.63274764410	841.870653639540	758.159764938860
2329.66253418970	821.459805867350	884.553628341800
2330.98527170600	817.187410617960	982.701422765770
2331.68426076490	821.035912351610	911.180605048000
2331.22447070810	824.218729854510	859.129335410210
2331.34862426910	820.776535216740	957.758204360540
2331.93090851260	827.874103395090	834.150305423490
2332.60918561060	828.225996043850	808.794766147970
2332.38839001400	823.985651788570	709.479520177210
2333.23459224370	821.364734582370	935.586605536950
2333.04614408710	829.099147323970	783.813841095900
2333.10518312140	804.782722741990	885.747891980880
2333.78302207660	822.044071754020	684.608793337480
2333.90449636940	798.533815379220	1059.27205225420
2333.77968866260	826.574890957550	758.756818963490
2333.72104556920	803.709966141330	858.342550512220
2334.00921661170	827.397347648580	735.409137332030
2334.23635107170	803.094766949910	835.841216571060
2334.60980765280	804.356094752420	812.311724122690
2334.97494192920	802.091752483630	1034.10447023020
2334.68687533210	823.684991938550	660.407991943700
2335.76219409530	803.152803083710	761.261904734340
2336.06408137160	805.914257750990	734.872814643210
2336.07437451660	805.155948430770	910.882935973660
2336.65155368610	823.658062922080	633.520731583090
2336.69761636960	804.301019442710	710.833899893980
2337.12010068720	823.671860901200	610.407791838160
2337.63124287300	823.686913240240	585.193675757050
2337.10592711940	802.323443681270	1008.83872640310
2336.30030212870	824.531829305810	559.968944498200
2336.81127938590	824.546860971200	534.763820403280
2337.86088279200	803.790730179130	684.715085586920
2338.09524463380	804.553767887500	985.071697072840
2338.46619771750	778.751413074550	835.258648103480
2339.44911021600	778.423254010860	808.994421544070
2339.94484276330	778.423254006750	784.844047174240
2338.89886695930	779.606727128530	858.931153663400
2338.98541022630	779.759283252690	760.586960586530
2339.51819044850	779.782937328600	734.405687354880
2339.82178991200	780.121687204590	885.340579245460
2339.73827307700	805.305506703440	934.820925497580
2340.30774968290	803.748646790310	958.936498823040
2341.18467219920	781.109156715720	710.791790753750
2341.79306562530	781.687991997730	909.199487387740
2341.97573359860	779.872803248410	1060.05143073360
2342.58631920420	781.704357486380	685.179439817180
2342.90096852210	802.465704771300	661.361700729890
2343.55646710330	781.553673248190	1035.61774417690
2346.22162892340	780.795319912490	1009.13716711730
2346.32573467220	783.468015537960	934.149882142460
2345.56039866630	808.301035311360	635.474024928460
2346.63574029970	783.867991086690	661.569487773570
2346.63280452320	807.939063635900	609.265043493680
2347.42861773910	807.262584312320	584.487602405040
2347.73517632690	781.808874986450	985.315826822140
2347.22236889820	808.988517106080	558.837345878680
2348.91227678780	806.128571218270	535.664000895400
2348.13099554230	783.850802476380	959.432007784890
2350.26256674620	799.347112440350	610.145495311680
2350.99769896790	798.922817516710	583.108216598530
2351.09250577880	799.802183588210	560.301364248820
2353.18076223070	796.111199154670	534.910475566320
2357.92424310950	777.250000000000	887.604660562730
2362.21653711810	777.250000000000	860.447786341070
2362.71559358280	777.250000000000	909.950333844900
2363.15173393940	777.521581512090	633.179049817040
2363.76504023930	778.177885570320	608.182482366450
2360.82398118620	777.250000000000	734.670333784010
2366.28419851700	777.250000000000	833.822075629020
2362.80954662350	777.250000000000	660.798479467610
2359.60559957400	777.250000000000	784.018271459830
2366.45855040220	777.250000000000	709.583577802520
2364.39816623500	777.004313383960	933.549768958860
2362.74664286420	768.200000000000	1058.72953726660
2360.06554455290	777.250000000000	761.488349041260
2364.23006958800	774.440848570930	959.704458508510
2366.75249925540	777.250000000000	811.008083956700
2364.85137645780	770.856414872400	983.654336412950
2361.89212034920	777.250000000000	683.969054902680
2364.79237614450	778.013072697150	583.911892801150
2364.17968580440	766.653288183450	1007.25271846480
2363.17322457020	778.946977258390	560.237276558580
2363.70706773960	778.946941351860	534.233478470820
2364.54470686180	767.920077465310	1037.55525724760
2378.62406856310	776.220054235930	944.214396639610
2379.81591939640	777.250000000000	701.427034563930
2381.78116435140	774.682160135460	958.188822273910
2383.05765164060	768.200000000000	1059.87279347260
2383.81377091840	771.435298372780	980.735790742580
2383.88080280490	767.920591923290	1037.55717630150
2384.00944602530	766.338099451940	1009.85857334210
2390.71361432260	777.250000000000	636.780795021520
2390.33018697550	777.250000000000	655.460046924940
2385.64493339230	777.250000000000	559.592618607520
2391.71014721510	777.250000000000	588.233165152290
2392.79843744320	777.250000000000	535.215435799150
2391.23999412000	777.250000000000	611.137395021560
2389.03745533850	777.250000000000	684.825910976390
2251.38739612720	894.123890099840	802.737335606140
2281.57345704720	895.436567300030	805.283927281660
2294.39301541070	895.643864718630	806.392653420120
2300.47808014730	889.074011812380	807.437069775100
2300.91044285480	885.042840264840	819.198681116900
2300.49354269060	883.242401107690	850.241949218360
2300.21488410230	880.051344805350	885.803784526770
2299.35010148380	877.755910510210	905.249968748780
2296.18623113600	884.619131347130	908.918683872560
2288.94256021550	887.490589509890	909.752038062530
2273.87222591040	886.518709709470	911.006427081980
2249.82157518680	883.897364835940	920.354506847810
2249.51080176630	882.698473460600	940.909131501090
2249.15616270980	887.581235130580	959.622500047280
2249.71948709570	891.278167517180	981.475321692580
2251.08605419020	886.906761990470	1003.17048232040
2253.94738815990	876.471669506020	1029.09228514670
2256.46915775990	866.519611635900	1053.81418217310
2257.54701613410	861.847979173570	1068.31793033000
2277.40013407360	861.710123929720	1068.66037640180
2286.18141100260	858.894689351660	1068.83101214850
2289.12780777850	849.263966594790	1068.68097184400
2293.02588127040	827.243295623870	1067.97947337170
2296.11690221370	814.211226001680	1067.47419113230
2303.27398257530	806.945781207010	1067.17336696450
2314.98922690660	804.005521269180	1067.22343214270
2328.37275072520	801.278026777100	1067.38703634920
2334.98162883310	794.657579613880	1067.46698186660
2340.26117762080	782.298557954520	1067.12737110350
2345.16372763590	772.757411566720	1066.92293989110
2353.15322364440	768.390825054390	1067.01263858090
2365.21802262410	768.200000000000	1067.24142668840
2383.05765164060	768.200000000000	1059.87279347260
2383.86425518500	768.200000000000	1042.04881035820
2383.90266441000	765.004956555000	1031.94833097000
2383.94918466950	763.649859022970	1023.75009973100
2384.00944602530	766.338099451940	1009.85857334210
2383.81377091840	771.435298372780	980.735790742580
2380.72907650610	775.531695645580	951.001214686330
2369.10509250920	776.834148363200	936.436120964380
2365.15670742970	777.250000000000	921.335084922870
2361.88950854780	777.250000000000	906.097677605720
2357.92424310950	777.250000000000	887.604660562730
2354.96971796250	777.250000000000	873.081444312460
2362.21653711810	777.250000000000	860.447786341070
2366.28419851700	777.250000000000	833.822075629020
2366.90910730590	777.250000000000	803.378681594310
2367.53193563680	777.250000000000	773.036640274880
2368.14790081550	777.250000000000	743.028947982320
2371.71347434720	777.250000000000	714.862331669580
2389.03745533850	777.250000000000	684.825910976390
2390.52631063240	777.250000000000	645.905581864380
2391.23999412000	777.250000000000	611.137395021560
2391.86565770590	777.250000000000	580.657232829630
2392.48755554080	777.250000000000	550.360524980770
2393.10930018790	777.250000000000	520.071279912000
2373.32639507580	777.250000000000	520.071279912000
2363.99822431820	778.946894644280	520.053492171990
2357.92415559530	785.657910389140	520.037275859010
2352.00579366520	799.597760836000	520.037275853150
2345.17451269230	815.687860818450	520.037275814310
2340.63189811820	822.603415899970	520.047728278860
2332.66651541820	825.509122789950	520.063884468720
2317.81519919470	828.128725248400	520.063884370070
2308.69288383020	832.832909034360	519.880075120540
2303.94702409740	841.925956536060	519.793624416810
2300.58996703020	861.484683251400	519.774691500930
2298.32353493250	873.182482871770	519.829625379020
2292.19448766720	878.084808959110	520.158450955580
2280.56279467450	877.841410118810	520.227957118020
2269.61527516910	878.247051020520	526.750067758500
2268.14250860850	885.097378786010	537.918166031400
2265.89228694160	894.809411538060	550.979170610860
2264.16068040460	899.603110708240	570.231340485740
2261.72694278900	904.315379388400	596.094084821320
2259.41856622720	907.604551320590	622.953756129370
2258.06767040840	908.708808629960	638.777658455330
2257.27856267730	906.395689734320	649.882668798980
2255.65801404940	901.282631087780	673.266142471330
2254.13593416360	901.258103549090	697.201897954300
2252.07444808710	902.574793033910	732.743200954520
2250.87281850240	902.204862297100	761.382634380330