3238.90881515450	905.621634252110	685.822059272860
3239.32766935220	902.810602870960	637.390951655330
3232.08207455040	904.902426414370	593.897314477890
3197.76125641830	871.256418144060	586.569927890100
3160.84122668040	858.020293286740	638.044516317790
3154.21879284280	861.280911039260	596.316600026360
3192.60410145360	863.263179226820	547.662715708430
3197.14238389380	854.433843907280	506.876853460520
3146.26144530840	863.051971312670	546.286300208350
3193.34896237440	845.339875979440	461.855862940730
3146.44408823980	854.247293287050	506.113912358500
3110.23795443730	850.650229980720	506.882795804850
3199.43342291280	851.592567468190	412.372640382610
3149.32130458660	845.799118569340	464.080599439070
3149.23315857100	851.549015210980	410.282495559120
3108.40619122760	851.421078579030	409.640792206420
3059.99311925010	851.273414362110	408.833594465730
3018.41672235530	851.136947702930	408.250814648920
2968.51438330160	850.981353791890	407.457527820910
2928.48660556260	850.854960508970	406.839377183110
2878.46020697840	850.696865902380	406.068296046260
2838.43392391350	850.570707822410	405.447532104290
2788.40931255660	850.412983524450	404.672307458180
2748.37121384310	850.286700880120	404.052358994000
2698.31094300440	850.128863186000	403.276592826180
2615.07041322880	841.088757179350	436.463935588340
2509.41715230000	839.350949026070	425.851773709140
2292.73666318760	851.483487094080	461.409492529510
3263.83501655380	925.884872987640	628.196759885930
3257.06869279470	908.671507047030	574.009387564030
3234.62510631900	901.484550649320	546.250147417240
3234.27097137950	898.007446642570	526.494502596270
3233.91684285080	894.530376530020	506.739090746270
3232.54798851540	873.619491607470	474.666750096050
3231.95324368710	865.639441026180	456.626708678570
3230.89204814170	856.184510446100	418.066607360400
3179.62263922730	852.454190425210	401.496211554520
3119.44399516370	852.264079708220	400.567879916110
3059.26621712360	852.073972195840	399.639555991210
2999.08803422400	851.883862597700	398.711234856360
2938.90948367580	851.693751886640	397.782907615020
2878.73146736720	851.503643254410	396.854584141870
2818.55254025680	851.313531165620	395.926253208580
2758.37492081050	851.123423428640	394.997939907380
2698.19657489010	850.933312780290	394.069622469100
2638.01767695280	850.743201660370	393.141281990240
2577.83949383130	850.553090167720	392.212982609880
2517.66119239620	850.362981580300	391.284643891720
2457.48284026330	850.172873300890	390.356299057320
2397.30455086550	849.982763471920	389.427975189240
2337.12622925650	849.792653226170	388.499654415400
2276.99603154050	849.541885100610	388.267615783030
2260.23541606130	859.562956156290	418.261293125300
2257.69683386000	862.676101026420	437.916916271460
2255.33251452150	868.848265675340	456.618220731090
2346.51894805190	826.194243170180	464.897434320660
2384.09457286280	823.157300781500	466.867130420910
3101.90025578860	780.381372015320	724.680282436320
3162.11988498300	817.981917056540	681.883459069210
3148.09469981820	777.250000000000	732.826591330220
3152.11439176490	816.543807105220	642.137359000180
3141.33147563700	777.250000000000	683.769867320280
3110.12566208780	777.250000000000	685.891741778090
3139.52856058790	779.804791175530	636.568984586170
3141.74630957920	812.752922303290	594.357653318550
3100.07936146400	777.250000000000	637.645903762690
3107.24823345450	777.250000000000	593.953727660840
3116.93710453150	815.451433417460	541.642112301940
3100.16507262540	777.250000000000	554.761029026360
3092.49140507110	820.683981075330	510.495811330500
3062.03819333900	777.250000000000	549.033976073910
3068.11870428630	807.492680657210	495.076979740040
3056.31556576940	777.250000000000	509.125615164870
3014.95906578710	813.482550994260	467.409368463960
2967.22642483400	811.475712758000	460.210359305700
2927.32817923570	810.244006497840	460.436250954540
2876.15342494410	809.669670141760	460.590143917350
2836.47997990620	812.374973341860	459.865260109560
2788.09636169690	811.934224051260	459.983358526050
2747.39759389640	810.526344785500	460.360598638370
2696.72122224280	809.255885022080	460.701017306010
2655.08801667190	810.953906326680	460.246033868690
2615.58835210450	810.697456107310	460.314749497870
2564.74464163790	811.462480619040	460.109761797750
2514.95460909060	811.333104530730	460.144428016140
2475.39130033140	811.307983729940	460.151159114420
2429.98700813660	811.414871121400	460.714723680120
2651.97119665190	778.453947822190	815.411428031670
2612.65065462740	779.755740098630	770.056150691550
3018.65295524260	781.046782511460	818.990658149940
2972.16679184510	780.588420626290	819.004082578860
2922.67763283400	779.983984686210	822.021756593100
2882.54374535020	779.669352015480	819.942071645830
2921.28594524390	781.777887762000	775.406972391560
2875.69756144470	781.303842092080	776.052875213500
2831.45492527160	779.232601319840	818.229173312470
2831.99416422520	783.915311336530	775.034167310730
2791.54429299690	778.889115099240	816.950269757270
2791.85209374010	780.476604310630	776.090149380120
2741.08760055820	779.945716923610	776.887230086950
2653.05977466980	781.662071638030	778.120366564440
2613.40109548290	780.577018300470	728.176558460080
2568.77595866810	779.905440495040	734.161087169160
2520.25796925420	779.716071624720	726.721642469170
2701.01812136940	777.773586555730	822.725201737830
2741.17730052490	778.100942357020	824.483205311180
3012.76756890690	797.249533710040	696.503442291470
3062.03962626800	781.638299736550	638.076524402510
3020.42877879690	797.250000000000	624.730402074170
2935.25913461910	797.001596985410	683.042132454180
2949.60090407210	797.250000000000	627.131113682930
3013.32712824560	783.250000000000	548.053312706850
2853.33885559180	797.204079305310	679.906493058500
2855.17664948360	797.250000000000	610.521917558810
2970.81152420910	781.406439947320	503.157820129860
2948.07133645090	783.250000000000	520.601514575120
2764.34039002810	797.250000000000	676.709119387240
2922.65181174630	780.748717857910	501.747158861910
2755.68295001520	797.250000000000	619.595478334680
2853.74175793070	783.250000000000	534.581145612730
2883.65988515120	781.087671623000	502.227998401650
2683.04596873890	797.118150324090	680.765817830490
2832.97701542070	781.219316666970	502.428260426130
2748.84486295880	791.924478765090	550.304693269480
2675.16593255810	797.250000000000	615.389049152870
2589.78873935200	796.738418043830	682.985180480440
2786.28814046000	781.269307051500	503.817390169870
2667.98237289630	786.545048712000	544.685861650000
2585.77538304250	797.568914837220	610.427884874340
2699.39576645600	781.526779779860	502.925001619150
2659.49798539630	781.522109631090	502.922784068990
2504.39400120370	797.250000000000	622.723810281400
2595.22084601730	783.250000000000	535.919553368900
2609.11759050690	779.446086315910	500.134761629860
2502.21507794050	795.936067571720	560.788185653900
2560.84211212240	781.284930709500	502.531214486210
2475.11097873660	783.502941034100	551.129717660120
2520.04189955400	781.042082997000	502.160514185280
2512.91933994690	792.119861321280	694.436995737090
3064.62388865960	777.250000000000	597.047554562840
3010.73091025980	777.250000000000	506.211507124260
2746.90369399690	777.250000000000	507.916882902940
2471.45075869680	777.250000000000	498.968448356060
3062.30832276660	772.783290528200	1043.17810889420
2458.79024612920	797.239311629560	642.712849242680
3106.77095399690	771.402638326610	1090.07537599560
3013.03263899720	770.446159912410	1090.93287025640
3103.63983978530	776.687743358150	952.987408667870
2968.94362670980	770.040479572520	1090.19658233910
3104.58247509700	778.276555349150	912.254415622200
2925.92968973000	769.555900695000	1091.76799054960
3104.34942025690	780.041961589150	866.668786913280
2881.11672739800	769.215769161200	1089.15745144180
3060.18799215670	779.731736423400	863.452500779420
2835.45732664970	768.725284352280	1090.20925075110
3060.70000016440	781.529227269370	817.228707458570
2655.05981029610	768.774131056110	1043.13109217830
2612.12951874530	768.252202298580	1045.68692684520
2564.69902254690	767.749231658690	1046.61087779020
2520.99084606100	769.154603058850	999.267771199130
2478.47217147000	768.772169464330	998.330838616250
2430.86299245500	771.699420568940	910.750576481810
2429.23475501120	773.516227548380	863.485064178830
2474.02563785030	779.186219138880	728.643142017980
2431.89115082880	778.633152986070	732.204073741460
3101.98278943030	774.742551006040	1002.72931507270
3102.17441452830	773.112965985930	1044.80185281640
2788.28792942630	770.963421039450	1051.64479820660
2744.11335533290	770.510218672380	1049.64893675900
2700.33955213780	770.144174385110	1047.92703223010
2564.91993405880	770.696449062290	998.907134937080
2425.73650191970	776.126555555270	820.308542499570
2426.18450677870	776.967372847470	773.711934569930
2474.41768718820	770.456476718800	953.866006284310
3062.42638014260	775.337942890790	1002.13127327540
3016.16992680130	773.174782601620	1046.79566982240
2969.06848610490	772.245101629990	1059.36101444560
2925.16117337100	771.899655781590	1057.38123534220
3067.87846317320	779.035286393250	904.393811133330
2878.65706591730	771.529365830310	1055.32880642990
2836.87621464830	771.116436198760	1054.65085809120
3019.74025977860	780.401712437730	856.203012632980
2521.69870790060	765.489069330980	1042.27520600670
2429.52428232250	769.989997967570	954.493287928680
2789.55088222950	768.247382836960	1090.87380538240
2701.37341506880	765.614216396380	1084.73858923800
2743.90841247700	766.950212771370	1089.33642474370
3059.12917072110	768.688508797080	1087.95560723590
2608.72752533160	764.120032604250	1090.39841903710
2566.01533770310	764.093660522770	1090.09698475950
2475.36976174420	760.822394327160	1043.16827344550
2432.16909038230	768.439423455250	1000.39914181310
2339.62710334430	758.984462689140	1043.53605798220
2385.60541472500	775.210613081880	953.908770900320
2339.32351573270	768.178751543770	997.955183780250
2339.57041960510	775.021980252820	954.643490655510
3193.95343887150	777.250000000000	910.757942833470
3149.94361448900	777.250000000000	772.616472595200
2383.87460127840	777.250000000000	820.360392076570
2382.27950479970	777.250000000000	775.168095595720
2382.51655072220	777.250000000000	729.102203608390
2384.23391659880	777.250000000000	686.533052997930
2382.44520122510	777.250000000000	641.179994352740
2387.68287204110	777.250000000000	597.639416379170
2385.59994644040	777.250000000000	552.785747325230
2428.31242531540	777.250000000000	505.107156761550
2384.28421942720	777.250000000000	504.054760253880
3107.65986539670	777.563911781290	775.594281232270
3109.59197765000	779.626313113000	818.492086417000
3194.29186356850	762.353475135040	1086.70751061270
3196.26703791990	768.331047937350	1045.28464005610
3195.03999251120	773.391496731090	1000.83339229430
3195.99587202210	776.774268538590	952.521702647690
3148.79811376850	773.334536521820	1000.87262541990
3013.00873398150	763.014011263780	1133.95460740850
2971.47500891860	762.833259583290	1134.88581113370
2926.40788598310	762.463969113790	1133.82374822330
2880.43358525010	761.934453874410	1136.70769326280
2834.54602025910	761.296642204970	1136.23497778780
2789.06650938740	760.605109837790	1131.82059908440
2746.13193216080	759.939751094740	1136.35157464010
2699.30846005430	759.243560922820	1133.26664986380
2385.17641220920	768.127309730620	1000.19432901340
2385.63002937970	759.753690541640	1042.89130365230
2429.70039875810	760.447407554380	1042.24412045830
2523.99736735340	755.325861203820	1091.90448246610
3154.06522698550	777.250000000000	820.159865299920
3193.16388785860	778.206172513860	817.892605776990
3194.86354600500	777.250000000000	774.876305732500
2340.46462067230	777.250000000000	550.466192900300
2342.65877941470	777.610243078400	638.437473094560
2342.42176800220	777.595538138420	685.290617021060
2340.64133249270	777.604497556050	775.307767676050
2341.32793399560	777.574197575630	729.275039689050
2341.32484134620	777.250000000000	909.253476212040
2339.77915088250	777.250000000000	865.290611358470
2341.63244509880	777.250000000000	819.407209254090
2419.26957001130	790.676205609540	675.491823152080
3149.19442311590	770.790061103540	1044.86199880470
3149.85633607750	761.915819635810	1088.45115002330
3058.86181534580	764.730375635000	1135.83599240770
2608.91003094500	758.914055247140	1138.11599419610
2655.13707271190	758.651545699230	1135.72917949760
2657.12592490950	761.712943468000	1088.69335246750
2308.48544227510	815.655304105520	908.676660179330
2379.24008823540	721.783905528660	1229.73037534480
2385.85297847180	770.454814676790	909.657341125720
2384.38664349000	774.946447836000	864.814549451000
3231.76921836900	814.698489631920	955.770064683960
3228.14535653260	815.791918911060	908.463852323560
3206.63244829440	817.010028178070	771.615206014470
3188.05744092190	816.386445194540	733.715151121710
2340.26990004990	777.389560525570	593.624530783110
2333.56255973300	814.612909686980	819.939112302380
2334.35792860640	816.647707335980	772.583389880160
2427.70252055550	783.559859969920	594.525587511660
3149.60540647290	780.750000000000	955.609726846170
3226.74571858590	815.306977921050	996.777283936440
3193.21610858570	757.120946712600	1132.03499589920
2564.15465037690	762.174483778290	1141.79059050520
3150.44425805360	769.570498631320	1175.54998080230
3103.70517322460	772.937035110750	1175.42050248600
3059.17061161190	774.812382278280	1174.41036785440
3015.58206351840	775.903768644810	1172.94179664190
2968.10557757460	776.770457325290	1171.16002957110
2924.83598239840	777.099232897960	1169.25067475920
2880.64240864900	779.271734498230	1168.61715256250
2519.67632345570	765.295237846220	1142.30040418760
2332.70192595870	811.469864623540	863.951356557020
2329.58686338980	762.320870491010	1184.24596951690
2430.19661852920	722.092416573520	1270.07240203330
2342.09009531280	728.126079918530	1180.14929296870
2337.77969527650	738.139689005720	1138.64308463650
3148.81347909260	775.619690649670	909.413519046280
3150.89934795360	777.816691995540	864.906301860100
3193.17947547950	782.374029162660	865.284321079470
3207.94399176280	856.745303406850	770.275645715550
2342.36069986840	815.748725619070	507.887726690330
2335.44453613980	814.156469557370	730.186678581020
3225.91095866860	772.245424498980	1137.87695420600
3235.80384926160	770.888844688900	1179.20408641360
3246.68977654330	769.566166442980	1224.14000809130
3293.26850917700	677.188466909740	1446.63679785200
3148.96910863160	757.750000000000	1134.20080448690
3105.27024767470	757.750000000000	1133.32135837060
3239.39740079020	727.061519261310	1269.92278463510
3282.21794358850	686.514797899980	1408.73830297350
3239.66459116750	737.075535226720	1228.51100012160
3194.11508324430	769.212830960680	1180.78818221670
2297.18023895040	814.446069529010	998.683730726760
2299.22596696670	820.169140999310	955.355786111870
2305.98196833290	823.093623207870	595.126239127510
2302.92529632140	778.240971073370	1136.80731328960
2294.39527397290	764.575989503000	1179.21476255350
2652.52460584830	678.216338450690	1409.86065927910
2519.98722444000	693.385793604080	1319.14760930040
2568.64902264030	686.054739727310	1354.78412479430
2378.85769374300	732.291721547560	1187.13278208390
2428.52205207580	779.750000000000	550.037902733350
2307.07749630040	822.339753154480	549.347036559000
3277.88234764080	639.546192192240	1532.95247868220
3240.53990605130	632.721952754050	1545.42397712530
3286.60224522040	714.758079363440	1399.49856275750
3247.39344804860	725.468124959030	1360.50888508660
3242.66323831380	724.087226051160	1314.67767961510
3229.85409343520	756.190058478400	1299.36816356440
3247.61680063980	729.152130543730	1374.56819410950
3263.32776617010	702.527071635610	1439.67984942170
3285.87312170020	644.743920559710	1500.71781810410
2835.03766667660	634.461214766410	1496.16739647450
2834.97364361550	783.573787222350	1183.86849457110
2789.43359245250	782.782998360670	1181.86380284200
2519.34938031260	775.836330512760	1170.77013055270
2562.99907562280	777.008588604780	1173.23800909950
2568.28221634490	777.143463812570	1173.53994108070
2610.62957340590	778.171450589880	1175.97949668150
2616.24027117810	778.300557537170	1176.30532343840
2653.29597801790	779.112424473410	1178.46925164580
2663.99759389840	779.333790596920	1179.09769005460
2700.94566206100	780.053895896310	1181.27577614140
2711.10993491460	780.239963416310	1181.87723456320
2742.56847638200	780.784272146350	1183.73993503230
2758.32144902300	781.038760347900	1184.67377421210
2806.00672631180	781.737221004750	1187.49823771310
2853.83857049720	782.331457729650	1190.31820651990
2901.69503221310	782.822714920590	1193.11190056460
2949.91108821350	783.215488485120	1195.88732797540
2998.36067231590	783.510067553860	1198.62160587110
3046.99870729730	783.707312720430	1201.29889966300
3095.77779373530	783.806685718580	1203.90940818360
3144.54695104640	783.794475112940	1206.48730187500
2490.55058156500	770.999719182790	1170.33641737240
3199.71775710840	780.532863921010	1205.65553582160
2473.74864967170	760.243517188130	1138.51880344030
2428.94749545240	759.667311412740	1136.08681969500
2389.01824626750	756.737553053800	1138.37066479060
2292.87639653820	858.790042865100	865.516758816430
2297.15110343570	858.214536386890	730.968046004680
2294.48834750240	858.205181473850	819.211086802280
2295.17804447770	859.960602074420	775.236598093240
2295.18986625660	812.230431957510	1088.36885334010
2288.08208590040	858.387783286850	1044.89965743060
2295.83588639170	814.528314480620	1043.93164640540
2289.47091612170	856.585932401140	999.609727217940
2290.51605139320	856.794982843230	953.864994896430
2296.87559833200	863.082515023460	638.136116546730
2298.07954179960	862.419350164210	592.177163996780
2299.15990276390	862.101979800430	548.866157785260
2560.90523436360	711.094351701130	1362.78383246660
3015.93661469600	631.936446919550	1544.31323625400
2969.77227332600	634.770312469510	1541.45134731980
2925.33434935010	637.079620506480	1534.11939564540
2796.23064756610	642.722118261320	1485.92992982980
2605.81862473120	682.241750604890	1367.09692042900
2744.28503210850	679.220642978460	1445.43650703500
2692.48595321720	682.686246542680	1416.60741411110
2752.10421864780	683.842071163660	1449.49067245250
2688.72010780840	697.294986691030	1413.52404590820
2625.16087566750	710.402142883790	1375.90626922080
2603.57207106300	714.749485629020	1362.78170618020
2559.32366876660	723.477182665720	1335.32713414050
2421.06710544360	726.570535868050	1232.33934490440
3227.69481959410	861.919860202320	867.162885294620
3233.69665453750	858.654198125400	911.037182186130
3191.12144174840	860.172806657870	731.977205519100
3195.00871200760	631.717670066340	1545.14688878570
3150.48378279370	630.944692319140	1544.73674725740
3103.66611003250	632.290269621720	1545.36989357070
3061.19981819790	632.910948647340	1545.51800135170
3284.13758427750	730.055165245890	1362.05189352460
3226.13962108140	816.904254277900	1091.36217755020
3214.05941098630	777.414377371560	1231.20499660140
3274.19563386620	678.745676109310	1492.36492699890
3252.27743761590	661.525056425810	1526.97434262840
3198.26925600040	657.529862060450	1532.63861472140
3124.44802348850	656.196131355490	1531.91732767120
3050.98327508870	654.755136418990	1530.83999398320
3002.17051580400	654.211442719630	1529.01287536680
2929.51468089180	657.008588425800	1518.81422604920
2858.64789563030	664.230169323850	1499.29962634210
2835.88066577370	667.539228117680	1490.82010060550
2792.21750322330	675.313645106530	1471.16926916710
2876.33254041650	634.468458279310	1504.67185100010
2472.75816572720	738.011389868410	1229.13858329410
2521.38505041810	723.258387451520	1310.94427791600
2475.38567404480	769.020306062310	1180.27163476460
2298.18494815390	859.254572687480	684.221288029590
2291.52205741230	860.236703339180	910.899842197050
2283.00907100580	897.276066310030	728.464140307330
2286.30041434140	850.923323868840	1087.06906787240
2292.61564965690	811.400095065760	1132.64384670380
2300.66486168670	861.006655046370	504.447115783470
2289.37104039090	895.437242258900	553.353682426830
2289.92888259040	901.712065052440	594.284032112590
2289.87889760980	902.423071514650	640.771084436830
2265.37500773010	772.949250487870	1158.79224636960
2278.27414534200	778.898063175080	1183.04605885810
2300.15294188220	774.172722207200	1200.96334740400
2322.62629830310	769.703238553200	1217.88206567650
2337.72992946950	766.768065909110	1228.86029499790
2345.30038926700	765.305135856560	1234.29194282050
2269.09211649920	769.953894024320	1168.96229006160
2368.14886643480	760.921237510790	1250.49035741420
2387.28233984500	757.264121347020	1263.85499053940
2391.23733609380	756.506047102220	1266.59560074920
2414.53677208850	752.012489526540	1282.59480637460
2438.06095457280	747.422052495200	1298.50819718500
2461.52203212800	742.787238437940	1314.15155366460
2485.09284048970	738.068668992470	1329.64398670200
2508.52511808590	733.314962513060	1344.82009011520
2475.14107856020	727.471335502180	1313.40539148420
2474.00558496690	726.868511524330	1269.64818385680
3280.23570541390	775.859772331860	1229.74180601580
3234.52565802830	814.504815098500	1136.09607896970
2522.82885231600	728.491322101410	1310.72040526170
2517.84583483230	737.822413760040	1288.29230721810
2507.77656438340	751.908899991740	1245.34207551150
2496.95497846680	765.329657731270	1200.35862965970
2284.22786735830	897.163856039200	683.025563412410
2251.30336539870	900.108381705300	773.472895955080
2257.99646317550	789.056141386880	1158.25405837000
2832.83936882810	662.562703252930	1532.68536086940
2857.82092050570	656.919669960000	1545.35473138020
2524.36623657860	725.318635300650	1352.84504076520
2529.79462353760	726.674648679850	1357.37790378520
2548.13126320180	722.903976522100	1368.92365268260
2568.90284235060	720.874230992330	1382.89722007340
2591.64925727480	716.093095244240	1396.88062664720
2606.81680460620	710.600795491310	1405.01897670500
2609.91305951620	709.940490066660	1406.88690296050
2629.19529900460	708.058955802520	1419.52551074630
2665.90046678140	697.812208664150	1440.02903641650
2684.62525658440	693.684679375400	1450.84376428530
2705.79623369180	691.203094282060	1464.04158736660
2729.10326060840	685.986527802630	1477.13369515030
2747.72025551420	679.593216997600	1486.27298541090
2768.12347433710	677.199397598400	1498.56361972150
2780.66234355490	674.366433358310	1505.31638121910
2793.19754941530	671.531727666930	1512.00040334610
2813.95304040000	664.636341296120	1521.70705759140
2700.50891308760	680.406415447070	1450.68837941070
2878.70257823520	641.975171636180	1542.59048826800
3291.52715039120	769.824066924400	1268.23580771240
3276.19851825770	814.505615501230	1181.92636924630
3245.30999537350	808.054777084440	1173.08629281580
3325.49655439410	678.295045743210	1495.28337359350
3240.37920002290	846.110804378600	1086.15524521180
2248.85286079890	901.005696589270	684.266998185610
2248.94379308710	902.463523205530	730.064341714460
2251.54755373580	868.972319570500	1048.58839384340
2245.08485017390	792.220774078920	1155.65919788080
2882.83613226360	651.520786942180	1557.31380044220
2909.96867671480	649.478110338020	1563.05823865710
3272.60983333690	863.896050784450	1135.53948985840
3285.31066198060	860.754763819950	1179.55869054180
3288.41747799430	808.745738946930	1213.03783308520
3006.09621805960	651.653581385470	1565.31841887310
3032.71088111970	652.231226581280	1565.82638685830
3053.60776180260	650.481571519870	1564.98927007490
3078.20926187420	653.186311467080	1566.58965676780
3106.05959589030	653.750851173460	1566.99067886760
3126.95174203480	651.968568981070	1566.05724316440
3151.56180456560	654.639499926230	1567.53564652500
3179.41973150030	655.163047139300	1567.80094922830
3200.30932206430	653.349657258260	1566.76954605280
3225.75003855020	655.999425411790	1568.12537806680
3255.11200048300	656.506941091250	1568.25416932970
3264.21699707070	652.033011906610	1565.77149342290
3288.19590742430	657.058039331730	1568.32688691680
3317.40513315780	657.032855034690	1568.05975238540
3330.82004867310	655.072461837470	1564.93814015600
3336.03226984300	660.437439820910	1555.29662697990
3334.57416875610	674.712944627880	1537.57719271860
2240.12854359610	902.528206500050	820.295584894630
2238.33081149620	895.969101079780	909.274182463320
2239.25579091060	899.456616212220	864.800544132500
2248.59147576790	858.650416811120	1089.92957169060
2252.34510747390	906.176518289760	593.905874390850
2251.96079437880	908.293388207860	641.060001786620
2937.49299919860	650.096113907780	1563.80735455190
2961.88412562800	648.479712319900	1563.17246573340
2982.70903741630	651.134075319970	1564.83491276740
3298.96922516800	865.129557781880	1175.78117657440
3294.56059299660	879.707045300450	1151.06603183290
3290.28117390780	892.348280706360	1124.06578212240
3302.76868515460	850.383944602460	1195.27094088870
3305.27222323190	829.283126305070	1207.47346070180
3304.08228070040	806.163743334230	1214.96250258560
3330.89807794920	717.542442824680	1448.31440916430
3344.56403735700	667.510609834240	1553.80025668330
3348.99736659800	677.502611310040	1534.29872635680
3344.91726595820	690.353317705290	1508.03138141790
3340.77517783520	703.055865511290	1480.91669063790
3336.59882117030	715.464443240700	1453.19861561510
3332.34436988470	727.649232671900	1424.65093184920
3330.20603024720	733.587510112110	1410.20932211410
3328.09040843570	739.334638519940	1395.87310137540
3323.83209115970	750.502893579650	1366.90889988020
3319.53656948630	761.210467967270	1337.60123474950
3316.65910088200	768.061277645220	1317.95107566090
3315.26158767500	771.293979585380	1308.40938793280
3311.09600119270	780.558984250460	1280.00202877450
3306.88175654890	789.363125000740	1251.35847454960
3302.83590832140	797.275168436860	1224.00087027680
2229.37185891360	907.150046078450	700.293852608370
2227.76791756940	907.564195830450	727.906603758410
2226.33584757200	907.484241752400	756.447657818500
2225.13941527180	906.889202621430	784.968501678600
2224.18236468660	905.768534357930	813.583234587240
2223.47690192080	904.083568988870	842.233298330620
2232.75240776720	910.199444766320	649.509510979930
2231.02056627310	906.541564361530	674.838206628890
2223.04504210600	901.807537470800	869.900521988290
2222.86240997610	898.829080310240	897.494861570870
2222.93283128140	895.270642338590	924.225586039280
2223.19203586980	891.737430006570	946.886238789970
2223.52224033840	896.132228390740	961.729725852490
2239.90425338310	895.653996480830	997.945750292660
2223.91348718090	899.429135047280	979.096844152170
2225.05406073860	891.268997193980	1012.14626104080
2226.19067070500	883.481462769970	1036.23737297480
2227.35198105690	877.075699389230	1055.91012791350
2228.47047329940	870.799895294410	1073.14315422850
2230.26095449240	858.019558624300	1096.25773837120
2232.33304959340	842.755668235050	1119.08100470160
2234.13562975520	824.044143669060	1136.67218017220
2248.91479042680	818.489040088770	1141.60925873530
2252.33295536350	879.209889652090	481.880301128460
2247.19967256000	883.354682288570	505.455873021240
2249.68025600620	899.513719133620	550.337554426480
2240.92632022890	900.794523056930	555.704937490820
2243.87511018540	887.158221969680	526.625330638760
2234.44363534770	911.844128284720	627.426269549300
2238.54243915300	905.784247689430	580.160956958080
2236.41021953490	909.411835503740	603.900302005740
3263.86852377000	932.306085831000	687.867810863000
3280.46601943100	906.095059496430	1039.93480630720
3281.12590295840	908.984852561440	1047.28569219560
3285.92060982020	903.539422705860	1092.31226411830
3239.81980918110	857.890545104280	1044.10299100750
3236.42413005760	860.296841657710	997.272803848080
3254.69350406060	905.573962980110	911.239068143650
3238.59471594570	859.186482519700	953.378197665090
3251.87901726520	899.687563775890	866.364733585390
3250.49972984010	901.539046246370	821.454524978190
3247.59993562620	902.468295344090	772.507937503340
2224.48161705710	897.907146556370	997.039855431270
2236.95306505560	799.213750131990	1149.63758289780
3244.91502142020	900.773646267270	727.340797294600
2242.74598312500	894.814865299740	537.058996591850
3277.34034938480	909.686766885740	1002.12422526430
3276.01692937460	912.333072474010	982.526575610750
3272.79590411170	918.380435721100	923.469421508660
3270.76162130330	921.534961095140	864.135241732950
3269.91781969790	921.752334302520	804.689008729260
3270.34029919050	919.194784083050	745.291930543890